# .PCD v0.7 - Point Cloud Data file format
VERSION 0.7
FIELDS x y z rgb
SIZE 4 4 4 4
TYPE F F F U
COUNT 1 1 1 1
WIDTH 362
HEIGHT 1
VIEWPOINT 0 0 0 1 0 0 0
POINTS 362
DATA ascii
0.000000 0.000000 1.000000 16711680
0.000000 0.000000 -1.000000 16711680
0.309017 0.000000 0.951057 16711680
-0.309017 0.000000 0.951057 16711680
0.000000 0.309017 0.951057 16711680
0.000000 -0.309017 0.951057 16711680
0.587785 0.000000 0.809017 16744448
-0.587785 0.000000 0.809017 16744448
0.000000 0.587785 0.809017 16744448
0.000000 -0.587785 0.809017 16744448
0.415627 0.415627 0.809017 16744448
-0.415627 0.415627 0.809017 16744448
0.415627 -0.415627 0.809017 16744448
-0.415627 -0.415627 0.809017 16744448
0.809017 0.000000 0.587785 16776960
-0.809017 0.000000 0.587785 16776960
0.000000 0.809017 0.587785 16776960
0.000000 -0.809017 0.587785 16776960
0.572061 0.572061 0.587785 16776960
-0.572061 0.572061 0.587785 16776960
0.572061 -0.572061 0.587785 16776960
-0.572061 -0.572061 0.587785 16776960
0.951057 0.000000 0.309017 65280
-0.951057 0.000000 0.309017 65280
0.000000 0.951057 0.309017 65280
0.000000 -0.951057 0.309017 65280
0.672499 0.672499 0.309017 65280
-0.672499 0.672499 0.309017 65280
0.672499 -0.672499 0.309017 65280
-0.672499 -0.672499 0.309017 65280
1.000000 0.000000 0.000000 65535
-1.000000 0.000000 0.000000 65535
0.000000 1.000000 0.000000 65535
0.000000 -1.000000 0.000000 65535
0.707107 0.707107 0.000000 65535
-0.707107 0.707107 0.000000 65535
0.707107 -0.707107 0.000000 65535
-0.707107 -0.707107 0.000000 65535
0.951057 0.000000 -0.309017 255
-0.951057 0.000000 -0.309017 255
0.000000 0.951057 -0.309017 255
0.000000 -0.951057 -0.309017 255
0.672499 0.672499 -0.309017 255
-0.672499 0.672499 -0.309017 255
0.672499 -0.672499 -0.309017 255
-0.672499 -0.672499 -0.309017 255
0.809017 0.000000 -0.587785 8388863
-0.809017 0.000000 -0.587785 8388863
0.000000 0.809017 -0.587785 8388863
0.000000 -0.809017 -0.587785 8388863
0.572061 0.572061 -0.587785 8388863
-0.572061 0.572061 -0.587785 8388863
0.572061 -0.572061 -0.587785 8388863
-0.572061 -0.572061 -0.587785 8388863
0.587785 0.000000 -0.809017 16711935
-0.587785 0.000000 -0.809017 16711935
0.000000 0.587785 -0.809017 16711935
0.000000 -0.587785 -0.809017 16711935
0.415627 0.415627 -0.809017 16711935
-0.415627 0.415627 -0.809017 16711935
0.415627 -0.415627 -0.809017 16711935
-0.415627 -0.415627 -0.809017 16711935
0.309017 0.000000 -0.951057 16711680
-0.309017 0.000000 -0.951057 16711680
0.000000 0.309017 -0.951057 16711680
0.000000 -0.309017 -0.951057 16711680
0.218508 0.218508 -0.951057 16711680
-0.218508 0.218508 -0.951057 16711680
0.218508 -0.218508 -0.951057 16711680
-0.218508 -0.218508 -0.951057 16711680
0.293893 0.095492 0.951057 16711680
0.293893 -0.095492 0.951057 16711680
-0.293893 0.095492 0.951057 16711680
-0.293893 -0.095492 0.951057 16711680
0.095492 0.293893 0.951057 16711680
-0.095492 0.293893 0.951057 16711680
0.095492 -0.293893 0.951057 16711680
-0.095492 -0.293893 0.951057 16711680
0.559017 0.181636 0.809017 16744448
0.559017 -0.181636 0.809017 16744448
-0.559017 0.181636 0.809017 16744448
-0.559017 -0.181636 0.809017 16744448
0.181636 0.559017 0.809017 16744448
-0.181636 0.559017 0.809017 16744448
0.181636 -0.559017 0.809017 16744448
-0.181636 -0.559017 0.809017 16744448
0.769421 0.250000 0.587785 16776960
0.769421 -0.250000 0.587785 16776960
-0.769421 0.250000 0.587785 16776960
-0.769421 -0.250000 0.587785 16776960
0.250000 0.769421 0.587785 16776960
-0.250000 0.769421 0.587785 16776960
0.250000 -0.769421 0.587785 16776960
-0.250000 -0.769421 0.587785 16776960
0.904509 0.293893 0.309017 65280
0.904509 -0.293893 0.309017 65280
-0.904509 0.293893 0.309017 65280
-0.904509 -0.293893 0.309017 65280
0.293893 0.904509 0.309017 65280
-0.293893 0.904509 0.309017 65280
0.293893 -0.904509 0.309017 65280
-0.293893 -0.904509 0.309017 65280
0.951057 0.309017 0.000000 65535
0.951057 -0.309017 0.000000 65535
-0.951057 0.309017 0.000000 65535
-0.951057 -0.309017 0.000000 65535
0.309017 0.951057 0.000000 65535
-0.309017 0.951057 0.000000 65535
0.309017 -0.951057 0.000000 65535
-0.309017 -0.951057 0.000000 65535
0.904509 0.293893 -0.309017 255
0.904509 -0.293893 -0.309017 255
-0.904509 0.293893 -0.309017 255
-0.904509 -0.293893 -0.309017 255
0.293893 0.904509 -0.309017 255
-0.293893 0.904509 -0.309017 255
0.293893 -0.904509 -0.309017 255
-0.293893 -0.904509 -0.309017 255
0.769421 0.250000 -0.587785 8388863
0.769421 -0.250000 -0.587785 8388863
-0.769421 0.250000 -0.587785 8388863
-0.769421 -0.250000 -0.587785 8388863
0.250000 0.769421 -0.587785 8388863
-0.250000 0.769421 -0.587785 8388863
0.250000 -0.769421 -0.587785 8388863
-0.250000 -0.769421 -0.587785 8388863
0.559017 0.181636 -0.809017 16711935
0.559017 -0.181636 -0.809017 16711935
-0.559017 0.181636 -0.809017 16711935
-0.559017 -0.181636 -0.809017 16711935
0.181636 0.559017 -0.809017 16711935
-0.181636 0.559017 -0.809017 16711935
0.181636 -0.559017 -0.809017 16711935
-0.181636 -0.559017 -0.809017 16711935
0.293893 0.095492 -0.951057 16711680
0.293893 -0.095492 -0.951057 16711680
-0.293893 0.095492 -0.951057 16711680
-0.293893 -0.095492 -0.951057 16711680
0.095492 0.293893 -0.951057 16711680
-0.095492 0.293893 -0.951057 16711680
0.095492 -0.293893 -0.951057 16711680
-0.095492 -0.293893 -0.951057 16711680
0.475528 0.345492 0.809017 16744448
0.475528 -0.345492 0.809017 16744448
-0.475528 0.345492 0.809017 16744448
-0.475528 -0.345492 0.809017 16744448
0.345492 0.475528 0.809017 16744448
-0.345492 0.475528 0.809017 16744448
0.345492 -0.475528 0.809017 16744448
-0.345492 -0.475528 0.809017 16744448
0.654509 0.475528 0.587785 16776960
0.654509 -0.475528 0.587785 16776960
-0.654509 0.475528 0.587785 16776960
-0.654509 -0.475528 0.587785 16776960
0.475528 0.654509 0.587785 16776960
-0.475528 0.654509 0.587785 16776960
0.475528 -0.654509 0.587785 16776960
-0.475528 -0.654509 0.587785 16776960
0.769421 0.559017 0.309017 65280
0.769421 -0.559017 0.309017 65280
-0.769421 0.559017 0.309017 65280
-0.769421 -0.559017 0.309017 65280
0.559017 0.769421 0.309017 65280
-0.559017 0.769421 0.309017 65280
0.559017 -0.769421 0.309017 65280
-0.559017 -0.769421 0.309017 65280
0.809017 0.587785 0.000000 65535
0.809017 -0.587785 0.000000 65535
-0.809017 0.587785 0.000000 65535
-0.809017 -0.587785 0.000000 65535
0.587785 0.809017 0.000000 65535
-0.587785 0.809017 0.000000 65535
0.587785 -0.809017 0.000000 65535
-0.587785 -0.809017 0.000000 65535
0.769421 0.559017 -0.309017 255
0.769421 -0.559017 -0.309017 255
-0.769421 0.559017 -0.309017 255
-0.769421 -0.559017 -0.309017 255
0.559017 0.769421 -0.309017 255
-0.559017 0.769421 -0.309017 255
0.559017 -0.769421 -0.309017 255
-0.559017 -0.769421 -0.309017 255
0.654509 0.475528 -0.587785 8388863
0.654509 -0.475528 -0.587785 8388863
-0.654509 0.475528 -0.587785 8388863
-0.654509 -0.475528 -0.587785 8388863
0.475528 0.654509 -0.587785 8388863
-0.475528 0.654509 -0.587785 8388863
0.475528 -0.654509 -0.587785 8388863
-0.475528 -0.654509 -0.587785 8388863
0.475528 0.345492 -0.809017 16711935
0.475528 -0.345492 -0.809017 16711935
-0.475528 0.345492 -0.809017 16711935
-0.475528 -0.345492 -0.809017 16711935
0.345492 0.475528 -0.809017 16711935
-0.345492 0.475528 -0.809017 16711935
0.345492 -0.475528 -0.809017 16711935
-0.345492 -0.475528 -0.809017 16711935
0.500000 0.000000 0.866025 16727808
-0.500000 0.000000 0.866025 16727808
0.000000 0.500000 0.866025 16727808
0.000000 -0.500000 0.866025 16727808
0.353553 0.353553 0.866025 16727808
-0.353553 0.353553 0.866025 16727808
0.353553 -0.353553 0.866025 16727808
-0.353553 -0.353553 0.866025 16727808
0.707107 0.000000 0.707107 16760832
-0.707107 0.000000 0.707107 16760832
0.000000 0.707107 0.707107 16760832
0.000000 -0.707107 0.707107 16760832
0.500000 0.500000 0.707107 16760832
-0.500000 0.500000 0.707107 16760832
0.500000 -0.500000 0.707107 16760832
-0.500000 -0.500000 0.707107 16760832
0.866025 0.000000 0.500000 8453888
-0.866025 0.000000 0.500000 8453888
0.000000 0.866025 0.500000 8453888
0.000000 -0.866025 0.500000 8453888
0.612372 0.612372 0.500000 8453888
-0.612372 0.612372 0.500000 8453888
0.612372 -0.612372 0.500000 8453888
-0.612372 -0.612372 0.500000 8453888
0.965926 0.000000 0.258819 32896
-0.965926 0.000000 0.258819 32896
0.000000 0.965926 0.258819 32896
0.000000 -0.965926 0.258819 32896
0.683013 0.683013 0.258819 32896
-0.683013 0.683013 0.258819 32896
0.683013 -0.683013 0.258819 32896
-0.683013 -0.683013 0.258819 32896
0.965926 0.000000 -0.258819 8388736
-0.965926 0.000000 -0.258819 8388736
0.000000 0.965926 -0.258819 8388736
0.000000 -0.965926 -0.258819 8388736
0.683013 0.683013 -0.258819 8388736
-0.683013 0.683013 -0.258819 8388736
0.683013 -0.683013 -0.258819 8388736
-0.683013 -0.683013 -0.258819 8388736
0.866025 0.000000 -0.500000 16711808
-0.866025 0.000000 -0.500000 16711808
0.000000 0.866025 -0.500000 16711808
0.000000 -0.866025 -0.500000 16711808
0.612372 0.612372 -0.500000 16711808
-0.612372 0.612372 -0.500000 16711808
0.612372 -0.612372 -0.500000 16711808
-0.612372 -0.612372 -0.500000 16711808
0.707107 0.000000 -0.707107 16711808
-0.707107 0.000000 -0.707107 16711808
0.000000 0.707107 -0.707107 16711808
0.000000 -0.707107 -0.707107 16711808
0.500000 0.500000 -0.707107 16711808
-0.500000 0.500000 -0.707107 16711808
0.500000 -0.500000 -0.707107 16711808
-0.500000 -0.500000 -0.707107 16711808
0.500000 0.000000 -0.866025 16711680
-0.500000 0.000000 -0.866025 16711680
0.000000 0.500000 -0.866025 16711680
0.000000 -0.500000 -0.866025 16711680
0.353553 0.353553 -0.866025 16711680
-0.353553 0.353553 -0.866025 16711680
0.353553 -0.353553 -0.866025 16711680
-0.353553 -0.353553 -0.866025 16711680
0.475528 0.154508 0.866025 16727808
0.475528 -0.154508 0.866025 16727808
-0.475528 0.154508 0.866025 16727808
-0.475528 -0.154508 0.866025 16727808
0.154508 0.475528 0.866025 16727808
-0.154508 0.475528 0.866025 16727808
0.154508 -0.475528 0.866025 16727808
-0.154508 -0.475528 0.866025 16727808
0.672499 0.218508 0.707107 16760832
0.672499 -0.218508 0.707107 16760832
-0.672499 0.218508 0.707107 16760832
-0.672499 -0.218508 0.707107 16760832
0.218508 0.672499 0.707107 16760832
-0.218508 0.672499 0.707107 16760832
0.218508 -0.672499 0.707107 16760832
-0.218508 -0.672499 0.707107 16760832
0.823639 0.267617 0.500000 8453888
0.823639 -0.267617 0.500000 8453888
-0.823639 0.267617 0.500000 8453888
-0.823639 -0.267617 0.500000 8453888
0.267617 0.823639 0.500000 8453888
-0.267617 0.823639 0.500000 8453888
0.267617 -0.823639 0.500000 8453888
-0.267617 -0.823639 0.500000 8453888
0.918498 0.298435 0.258819 32896
0.918498 -0.298435 0.258819 32896
-0.918498 0.298435 0.258819 32896
-0.918498 -0.298435 0.258819 32896
0.298435 0.918498 0.258819 32896
-0.298435 0.918498 0.258819 32896
0.298435 -0.918498 0.258819 32896
-0.298435 -0.918498 0.258819 32896
0.918498 0.298435 -0.258819 8388736
0.918498 -0.298435 -0.258819 8388736
-0.918498 0.298435 -0.258819 8388736
-0.918498 -0.298435 -0.258819 8388736
0.298435 0.918498 -0.258819 8388736
-0.298435 0.918498 -0.258819 8388736
0.298435 -0.918498 -0.258819 8388736
-0.298435 -0.918498 -0.258819 8388736
0.823639 0.267617 -0.500000 16711808
0.823639 -0.267617 -0.500000 16711808
-0.823639 0.267617 -0.500000 16711808
-0.823639 -0.267617 -0.500000 16711808
0.267617 0.823639 -0.500000 16711808
-0.267617 0.823639 -0.500000 16711808
0.267617 -0.823639 -0.500000 16711808
-0.267617 -0.823639 -0.500000 16711808
0.672499 0.218508 -0.707107 16711808
0.672499 -0.218508 -0.707107 16711808
-0.672499 0.218508 -0.707107 16711808
-0.672499 -0.218508 -0.707107 16711808
0.218508 0.672499 -0.707107 16711808
-0.218508 0.672499 -0.707107 16711808
0.218508 -0.672499 -0.707107 16711808
-0.218508 -0.672499 -0.707107 16711808
0.475528 0.154508 -0.866025 16711680
0.475528 -0.154508 -0.866025 16711680
-0.475528 0.154508 -0.866025 16711680
-0.475528 -0.154508 -0.866025 16711680
0.154508 0.475528 -0.866025 16711680
-0.154508 0.475528 -0.866025 16711680
0.154508 -0.475528 -0.866025 16711680
-0.154508 -0.475528 -0.866025 16711680
0.587785 0.425325 0.687785 16760832
0.587785 -0.425325 0.687785 16760832
-0.587785 0.425325 0.687785 16760832
-0.587785 -0.425325 0.687785 16760832
0.425325 0.587785 0.687785 16760832
-0.425325 0.587785 0.687785 16760832
0.425325 -0.587785 0.687785 16760832
-0.425325 -0.587785 0.687785 16760832
0.718998 0.521508 0.460000 8453888
0.718998 -0.521508 0.460000 8453888
-0.718998 0.521508 0.460000 8453888
-0.718998 -0.521508 0.460000 8453888
0.521508 0.718998 0.460000 8453888
-0.521508 0.718998 0.460000 8453888
0.521508 -0.718998 0.460000 8453888
-0.521508 -0.718998 0.460000 8453888
0.802639 0.582739 0.125000 32896
0.802639 -0.582739 0.125000 32896
-0.802639 0.582739 0.125000 32896
-0.802639 -0.582739 0.125000 32896
0.582739 0.802639 0.125000 32896
-0.582739 0.802639 0.125000 32896
0.582739 -0.802639 0.125000 32896
-0.582739 -0.802639 0.125000 32896
0.802639 0.582739 -0.125000 8388736
0.802639 -0.582739 -0.125000 8388736
-0.802639 0.582739 -0.125000 8388736
-0.802639 -0.582739 -0.125000 8388736
0.582739 0.802639 -0.125000 8388736
-0.582739 0.802639 -0.125000 8388736
0.582739 -0.802639 -0.125000 8388736
-0.582739 -0.802639 -0.125000 8388736
0.718998 0.521508 -0.460000 16711808
0.718998 -0.521508 -0.460000 16711808
-0.718998 0.521508 -0.460000 16711808
-0.718998 -0.521508 -0.460000 16711808
0.521508 0.718998 -0.460000 16711808
-0.521508 0.718998 -0.460000 16711808
0.521508 -0.718998 -0.460000 16711808
-0.521508 -0.718998 -0.460000 16711808
0.587785 0.425325 -0.687785 16711808
0.587785 -0.425325 -0.687785 16711808
-0.587785 0.425325 -0.687785 16711808
-0.587785 -0.425325 -0.687785 16711808
0.425325 0.587785 -0.687785 16711808
-0.425325 0.587785 -0.687785 16711808
0.425325 -0.587785 -0.687785 16711808
-0.425325 -0.587785 -0.687785 16711808
